15.6368 12.5482 -16.4911 0 0 0
15.6481 12.6057 -17.5802 0 0 0
15.6612 12.6558 -18.6516 0 0 0
15.6753 12.7034 -19.7384 0 0 0
15.6882 12.7523 -20.8222 0 0 0
15.6973 12.81 -21.9114 0 0 0
15.6996 12.8831 -22.9862 0 0 0
15.6918 12.9811 -24.0617 0 0 0
15.6708 13.1126 -25.143 0 0 0
15.6348 13.281 -26.2102 0 0 0
15.5837 13.4866 -27.2548 0 0 0
15.5145 13.739 -28.3043 0 0 0
15.4274 14.0375 -29.3506 0 0 0
15.3251 14.3747 -30.389 0 0 0
15.2249 14.73 -31.3964 0 0 0
15.1286 15.0995 -32.3981 0 0 0
15.0532 15.4838 -33.3894 0 0 0
14.9846 15.8811 -34.3891 0 0 0
14.9287 16.2989 -35.3765 0 0 0
14.8732 16.7428 -36.371 0 0 0
14.8174 17.2019 -37.3538 0 0 0
14.7494 17.7046 -38.3424 0 0 0
14.664 18.2237 -39.2906 0 0 0
14.5597 18.7618 -40.2145 0 0 0
14.4245 19.3315 -41.118 0 0 0
14.2426 19.9329 -41.9823 0 0 0
14.0196 20.5679 -42.836 0 0 0
13.7577 21.2251 -43.663 0 0 0
13.4227 21.9134 -44.4368 0 0 0
13.0494 22.6093 -45.1739 0 0 0
12.6364 23.3239 -45.8919 0 0 0
12.147 24.0576 -46.5545 0 0 0
11.6405 24.8033 -47.2003 0 0 0
11.1208 25.547 -47.7956 0 0 0
10.5908 26.3151 -48.3639 0 0 0
10.0621 27.0881 -48.9026 0 0 0
9.50271 27.9028 -49.4024 0 0 0
8.94132 28.7141 -49.8725 0 0 0
8.36506 29.5271 -50.2848 0 0 0
7.76347 30.3474 -50.6561 0 0 0
7.13362 31.1847 -51.0016 0 0 0
6.47728 31.9923 -51.2636 0 0 0
5.7933 32.7929 -51.4875 0 0 0
5.09282 33.5704 -51.6659 0 0 0
4.34195 34.3134 -51.7671 0 0 0
3.55569 35.0439 -51.8317 0 0 0
2.73564 35.7393 -51.8427 0 0 0
1.84615 36.3985 -51.7852 0 0 0
0.940616 37.0195 -51.6928 0 0 0
-0.00287148 37.5807 -51.542 0 0 0
-0.96286 38.0816 -51.3498 0 0 0
-1.94717 38.5536 -51.1298 0 0 0
-2.90669 38.9292 -50.8593 0 0 0
-3.8734 39.2986 -50.5807 0 0 0
-4.88055 39.603 -50.2208 0 0 0
-5.9024 39.8952 -49.841 0 0 0
-6.86214 40.0828 -49.4074 0 0 0
-7.83172 40.2498 -48.9492 0 0 0
-8.79342 40.344 -48.4302 0 0 0
-9.74113 40.3901 -47.8755 0 0 0
-10.6586 40.3902 -47.2975 0 0 0
-11.555 40.3226 -46.6685 0 0 0
-12.4331 40.2326 -46.0297 0 0 0
-13.2917 40.0722 -45.3345 0 0 0
-14.1185 39.8942 -44.641 0 0 0
-14.9101 39.6802 -43.9329 0 0 0
-15.6864 39.4395 -43.2057 0 0 0
-16.4559 39.1752 -42.4574 0 0 0
-17.1957 38.8892 -41.7018 0 0 0
-17.9149 38.5988 -40.9531 0 0 0
-18.64 38.2795 -40.1648 0 0 0
-19.3581 37.9569 -39.3762 0 0 0
-20.0495 37.6287 -38.5901 0 0 0
-20.7304 37.3031 -37.8123 0 0 0
-21.3856 36.9407 -37.0297 0 0 0
-22.0276 36.5729 -36.2543 0 0 0
-22.6453 36.1076 -35.4409 0 0 0
-23.2318 35.6184 -34.6359 0 0 0
-23.7849 35.0811 -33.8244 0 0 0
-24.2643 34.5161 -33.0436 0 0 0
-24.721 33.9228 -32.2527 0 0 0
-25.1384 33.294 -31.4519 0 0 0
-25.5131 32.6427 -30.641 0 0 0
-25.8587 31.99 -29.8312 0 0 0
-26.1774 31.324 -29.0007 0 0 0
-26.4569 30.6891 -28.1817 0 0 0
-26.7274 30.0556 -27.3419 0 0 0
-26.9841 29.4346 -26.4753 0 0 0
-27.2302 28.8478 -25.5948 0 0 0
-27.4743 28.2736 -24.6982 0 0 0
-27.7136 27.7544 -23.786 0 0 0
-27.9581 27.2526 -22.8529 0 0 0
-28.205 26.7933 -21.9085 0 0 0
-28.4721 26.3427 -20.9155 0 0 0
-28.7508 25.9069 -19.9004 0 0 0
-29.0322 25.4669 -18.8757 0 0 0
-29.3226 25.0425 -17.8443 0 0 0
-29.6242 24.6223 -16.7914 0 0 0
-29.9229 24.206 -15.7483 0 0 0
-30.2103 23.8215 -14.7414 0 0 0
-30.4864 23.4625 -13.7722 0 0 0
-30.765 23.1002 -12.7938 0 0 0
-31.0378 22.7487 -11.8187 0 0 0
-31.307 22.4077 -10.8235 0 0 0
-31.5738 22.0699 -9.83767 0 0 0
-31.841 21.7309 -8.84139 0 0 0
-32.0847 21.4159 -7.84323 0 0 0
-32.3307 21.098 -6.83568 0 0 0
-32.5744 20.783 -5.83752 0 0 0
-32.79 20.4853 -4.82341 0 0 0
-32.9969 20.1948 -3.81739 0 0 0
-33.2039 19.9044 -2.81133 0 0 0
-33.3934 19.611 -1.73766 0 0 0
-33.5654 19.3202 -0.627126 0 0 0
-33.7391 19.0267 0.493866 0 0 0
-33.87 18.7538 1.60385 0 0 0
-33.9723 18.4912 2.72389 0 0 0
-34.0736 18.2311 3.83347 0 0 0
-34.1228 17.9885 4.94995 0 0 0
-34.1383 17.7609 6.05375 0 0 0
-34.154 17.531 7.168 0 0 0
-34.1044 17.3255 8.26499 0 0 0
-34.0182 17.1303 9.36854 0 0 0
-33.9327 16.9369 10.4618 0 0 0
-33.7674 16.7663 11.5549 0 0 0
-33.5659 16.609 12.6327 0 0 0
-33.3625 16.4503 13.7208 0 0 0
-33.0682 16.3199 14.7843 0 0 0
-32.7323 16.1995 15.852 0 0 0
-32.3997 16.0802 16.9096 0 0 0
-31.9941 15.9927 17.9422 0 0 0
-31.5649 15.9196 18.9513 0 0 0
-31.0699 15.8902 19.933 0 0 0
-30.5374 15.8805 20.9098 0 0 0
-29.9669 15.8969 21.8589 0 0 0
-29.3431 15.9517 22.7466 0 0 0
-28.6877 16.0256 23.6052 0 0 0
-27.9701 16.127 24.4491 0 0 0
-27.2049 16.258 25.2194 0 0 0
-26.3988 16.4063 25.9596 0 0 0
-25.5655 16.5691 26.6548 0 0 0
-24.7006 16.7482 27.2655 0 0 0
-23.8148 16.9338 27.8428 0 0 0
-22.8849 17.1307 28.3939 0 0 0
-21.946 17.3281 28.8701 0 0 0
-20.9766 17.5298 29.3301 0 0 0
-19.9711 17.7345 29.7538 0 0 0
-18.9467 17.9354 30.1384 0 0 0
-17.9272 18.1322 30.5009 0 0 0
-16.881 18.3296 30.8187 0 0 0
-15.8446 18.5252 31.1335 0 0 0
-14.7878 18.7309 31.4127 0 0 0
-13.7398 18.9359 31.6861 0 0 0
-12.6715 19.1534 31.9376 0 0 0
-11.6267 19.3699 32.1789 0 0 0
-10.6119 19.5888 32.403 0 0 0
-9.57797 19.82 32.6322 0 0 0
-8.54542 20.0584 32.8618 0 0 0
-7.52083 20.3106 33.106 0 0 0
-6.50656 20.567 33.3572 0 0 0
-5.46843 20.8487 33.6482 0 0 0
-4.44963 21.1388 33.9658 0 0 0
-3.42944 21.441 34.3113 0 0 0
-2.47498 21.748 34.7037 0 0 0
-1.51609 22.0651 35.1252 0 0 0
-0.567958 22.3998 35.6111 0 0 0
0.363885 22.744 36.1445 0 0 0
1.26674 23.0906 36.7085 0 0 0
2.10928 23.4334 37.3129 0 0 0
2.92204 23.7709 37.9227 0 0 0
3.72032 24.1132 38.566 0 0 0
4.50332 24.4543 39.2175 0 0 0
5.29296 24.8046 39.8939 0 0 0
6.06567 25.158 40.5877 0 0 0
6.82224 25.515 41.2991 0 0 0
7.53524 25.8653 42.0097 0 0 0
8.21317 26.2266 42.7672 0 0 0
8.86399 26.6001 43.5709 0 0 0
9.46002 26.9755 44.4023 0 0 0
9.99714 27.3548 45.2686 0 0 0
10.435 27.7329 46.1712 0 0 0
10.7963 28.1178 47.1238 0 0 0
11.0696 28.4961 48.092 0 0 0
11.2623 28.8721 49.0854 0 0 0
11.3447 29.2379 50.0925 0 0 0
11.3391 29.6023 51.1299 0 0 0
11.2711 29.9547 52.1664 0 0 0
11.1198 30.2911 53.2151 0 0 0
10.9085 30.6012 54.247 0 0 0
10.648 30.8965 55.2832 0 0 0
10.2804 31.1529 56.294 0 0 0
9.86283 31.3915 57.2862 0 0 0
9.3934 31.603 58.2321 0 0 0
8.83588 31.7852 59.1315 0 0 0
8.24144 31.9526 59.9946 0 0 0
7.58399 32.1048 60.8279 0 0 0
6.86234 32.2414 61.6071 0 0 0
6.09515 32.3738 62.3682 0 0 0
5.27851 32.4992 63.085 0 0 0
4.43576 32.6203 63.7397 0 0 0
3.5665 32.7426 64.3738 0 0 0
2.64699 32.8712 64.9639 0 0 0
1.71018 33.0064 65.5216 0 0 0
0.774914 33.1449 66.0422 0 0 0
-0.218767 33.3054 66.5358 0 0 0
-1.20825 33.4674 67.0071 0 0 0
-2.18751 33.6276 67.4171 0 0 0
-3.16605 33.7825 67.8064 0 0 0
-4.17728 33.9281 68.1512 0 0 0
-5.19574 34.066 68.4586 0 0 0
-6.24171 34.1979 68.7305 0 0 0
-7.30769 34.3193 68.9372 0 0 0
-8.39019 34.4365 69.1123 0 0 0
-9.45381 34.5402 69.2099 0 0 0
-10.5248 34.6386 69.2573 0 0 0
-11.5836 34.7311 69.265 0 0 0
-12.6535 34.8173 69.1885 0 0 0
-13.7159 34.9012 69.0789 0 0 0
-14.7929 34.9835 68.9118 0 0 0
-15.8693 35.0652 68.6846 0 0 0
-16.9544 35.1476 68.4246 0 0 0
-17.998 35.2291 68.1107 0 0 0
-19.0272 35.3117 67.7732 0 0 0
-20.0474 35.3967 67.401 0 0 0
-21.0388 35.4843 67.0031 0 0 0
-22.0284 35.5746 66.5853 0 0 0
-22.9896 35.6658 66.1225 0 0 0
-23.95 35.7582 65.635 0 0 0
-24.8546 35.8455 65.0837 0 0 0
-25.7641 35.9332 64.4927 0 0 0
-26.6582 36.0194 63.8492 0 0 0
-27.5154 36.1017 63.1597 0 0 0
-28.3411 36.1806 62.4578 0 0 0
-29.1213 36.2545 61.7143 0 0 0
-29.8783 36.3253 60.9415 0 0 0
-30.6284 36.3948 60.1298 0 0 0
-31.3018 36.4553 59.3075 0 0 0
-31.96 36.513 58.4555 0 0 0
-32.588 36.5666 57.5874 0 0 0
-33.1674 36.6124 56.6782 0 0 0
-33.7146 36.6524 55.7426 0 0 0
-34.2271 36.6855 54.7683 0 0 0
-34.6801 36.7088 53.7828 0 0 0
-35.0653 36.7186 52.7732 0 0 0
-35.2517 36.5329 51.6503 0 0 0
-35.4364 36.3489 50.5379 0 0 0
-35.6228 36.1632 49.4149 0 0 0
-35.5929 35.8008 48.3899 0 0 0
-35.5054 35.3876 47.3795 0 0 0
-35.4187 34.9783 46.3784 0 0 0
-35.3312 34.5651 45.368 0 0 0
-35.12 34.0546 44.4029 0 0 0
-34.8692 33.5092 43.4405 0 0 0
-34.6207 32.9689 42.4871 0 0 0
-34.3699 32.4236 41.5247 0 0 0
-34.1071 31.8766 40.586 0 0 0
-33.7709 31.2925 39.7111 0 0 0
-33.4379 30.7137 38.8442 0 0 0
-33.1017 30.1295 37.9693 0 0 0
-32.7688 29.5508 37.1025 0 0 0
-32.4326 28.9666 36.2275 0 0 0
-32.0248 28.3269 35.3342 0 0 0
-31.5956 27.6669 34.4263 0 0 0
-31.1704 27.013 33.5267 0 0 0
-30.7453 26.3591 32.6272 0 0 0
-30.3161 25.6991 31.7192 0 0 0
-29.8625 25.0299 30.8127 0 0 0
-29.3683 24.3349 29.8887 0 0 0
-28.8788 23.6463 28.9732 0 0 0
-28.3847 22.9513 28.0492 0 0 0
-27.8952 22.2627 27.1338 0 0 0
-27.3981 21.5682 26.2098 0 0 0
-26.8722 20.8855 25.2955 0 0 0
-26.3413 20.1963 24.3723 0 0 0
-25.8154 19.5136 23.458 0 0 0
-25.2845 18.8245 22.5349 0 0 0
-24.7585 18.1417 21.6205 0 0 0
-24.2215 17.486 20.7103 0 0 0
-23.687 16.8497 19.8138 0 0 0
-23.1474 16.2072 18.9086 0 0 0
-22.613 15.5709 18.0121 0 0 0
-22.0735 14.9285 17.107 0 0 0
-21.5458 14.3227 16.2227 0 0 0
-21.0258 13.7679 15.3526 0 0 0
-20.5106 13.2183 14.4907 0 0 0
-19.9955 12.6687 13.6288 0 0 0
-19.4754 12.1139 12.7587 0 0 0
-18.9603 11.5643 11.8968 0 0 0
-18.4099 11.0663 10.9442 0 0 0
-17.8639 10.5736 9.99874 0 0 0
-17.3128 10.0762 9.04435 0 0 0
-16.7668 9.58352 8.09888 0 0 0
-16.2249 9.1469 7.12817 0 0 0
-15.7011 8.80749 6.13883 0 0 0
-15.1723 8.46488 5.14016 0 0 0
-14.6484 8.12547 4.15083 0 0 0
-14.1528 7.88305 3.15405 0 0 0
-13.7179 7.81359 2.16892 0 0 0
-13.2788 7.74347 1.17445 0 0 0
-12.8439 7.67402 0.189318 0 0 0
-12.4505 7.78158 -0.805283 0 0 0
-12.0716 7.96455 -1.78337 0 0 0
-11.6877 8.1944 -2.75863 0 0 0
-11.2968 8.5104 -3.73825 0 0 0
-10.9131 8.88202 -4.69908 0 0 0
-10.5471 9.30266 -5.61919 0 0 0
-10.1995 9.77735 -6.50101 0 0 0
-9.87235 10.3582 -7.3571 0 0 0
-9.57603 11.0121 -8.16515 0 0 0
-9.31533 11.7557 -8.92382 0 0 0
-9.10678 12.5762 -9.59995 0 0 0
-8.95816 13.4872 -10.1872 0 0 0
-8.89532 14.4768 -10.6377 0 0 0
-8.91823 15.5214 -10.9495 0 0 0
-9.01887 16.5897 -11.1302 0 0 0
-9.18485 17.6777 -11.1901 0 0 0
-9.4163 18.728 -11.08 0 0 0
-9.70505 19.7301 -10.7907 0 0 0
-10.0442 20.6468 -10.3372 0 0 0
-10.4317 21.4694 -9.73641 0 0 0
-10.8527 22.1725 -9.02886 0 0 0
-11.3021 22.7594 -8.24082 0 0 0
-11.7714 23.231 -7.40318 0 0 0
-12.2715 23.6031 -6.50987 0 0 0
-12.7823 23.8671 -5.60877 0 0 0
-13.3181 24.0338 -4.68603 0 0 0
-13.8824 24.1006 -3.74782 0 0 0
-14.463 24.0631 -2.82705 0 0 0
-15.0409 23.911 -1.91789 0 0 0
-15.5903 23.6673 -1.02831 0 0 0
-16.1204 23.3212 -0.146532 0 0 0
-16.6207 22.8727 0.704637 0 0 0
-17.0963 22.3137 1.52539 0 0 0
-17.5313 21.6688 2.27873 0 0 0
-17.9376 20.9306 2.97482 0 0 0
-18.3111 20.1162 3.59497 0 0 0
-18.6503 19.2425 4.12476 0 0 0
-18.9679 18.3144 4.57911 0 0 0
-19.2665 17.3429 4.95617 0 0 0
-19.5482 16.3415 5.25532 0 0 0
-19.8221 15.2961 5.48293 0 0 0
-20.0803 14.2517 5.63476 0 0 0
-20.3066 13.2015 5.70233 0 0 0
-20.4815 12.1497 5.6878 0 0 0
-20.6066 11.0832 5.58065 0 0 0
-20.6796 10.0295 5.37384 0 0 0
-20.7015 8.99193 5.05784 0 0 0
-20.6747 7.99616 4.63178 0 0 0
-20.6046 7.06688 4.10258 0 0 0
-20.4953 6.19627 3.46102 0 0 0
-20.3557 5.41469 2.72804 0 0 0
-20.191 4.71721 1.90195 0 0 0
-20.0115 4.12014 1.00978 0 0 0
-19.8391 3.63828 0.00412762 0 0 0
-19.6809 3.22687 -1.05139 0 0 0
-19.5212 2.81159 -2.11685 0 0 0
-19.4049 2.54167 -3.20896 0 0 0
-19.3132 2.35617 -4.33191 0 0 0
-19.2223 2.17229 -5.44497 0 0 0
-19.155 2.09802 -6.56175 0 0 0
-19.104 2.09621 -7.66417 0 0 0
-19.0526 2.09438 -8.77698 0 0 0
-19.0054 2.14665 -9.89283 0 0 0
-18.9638 2.28551 -11.0407 0 0 0
-18.9226 2.42306 -12.1778 0 0 0
-18.8786 2.58008 -13.3242 0 0 0
-18.8235 2.82215 -14.4543 0 0 0
-18.7684 3.06423 -15.5844 0 0 0
-18.7128 3.30862 -16.7253 0 0 0
-18.6302 3.59445 -17.7562 0 0 0
-18.5438 3.88776 -18.7857 0 0 0
-18.4583 4.17833 -19.8055 0 0 0
-18.3478 4.4974 -20.8598 0 0 0
-18.1891 4.8662 -21.9544 0 0 0
-18.0289 5.23846 -23.0592 0 0 0
-17.8609 5.60882 -24.1471 0 0 0
-17.6118 5.99602 -25.1883 0 0 0
-17.365 6.37959 -26.2197 0 0 0
-17.1159 6.76678 -27.2609 0 0 0
-16.7688 7.13576 -28.2143 0 0 0
-16.4061 7.50644 -29.167 0 0 0
-16.0468 7.87366 -30.1109 0 0 0
-15.5575 8.23385 -31.0443 0 0 0
-15.0116 8.58552 -31.9593 0 0 0
-14.4605 8.9405 -32.8829 0 0 0
-13.7817 9.22743 -33.6856 0 0 0
-13.0513 9.49507 -34.4577 0 0 0
-12.3277 9.7602 -35.2225 0 0 0
-11.4368 9.92645 -35.8424 0 0 0
-10.5 10.0722 -36.4358 0 0 0
-9.5719 10.2165 -37.0236 0 0 0
-8.53712 10.2763 -37.4442 0 0 0
-7.4929 10.3135 -37.7931 0 0 0
-6.42099 10.3213 -38.0251 0 0 0
-5.35311 10.305 -38.148 0 0 0
-4.27273 10.2749 -38.2099 0 0 0
-3.20894 10.2171 -38.1303 0 0 0
-2.14564 10.1474 -37.9838 0 0 0
-1.10463 10.0651 -37.7606 0 0 0
-0.0867479 9.96587 -37.419 0 0 0
0.902738 9.86147 -37.029 0 0 0
1.85971 9.74577 -36.5362 0 0 0
2.76346 9.62619 -35.9714 0 0 0
3.64752 9.50249 -35.3533 0 0 0
4.43937 9.37769 -34.6298 0 0 0
5.1962 9.25304 -33.8549 0 0 0
5.88623 9.13143 -33.0247 0 0 0
6.48749 9.01576 -32.1063 0 0 0
7.03239 8.90603 -31.1629 0 0 0
7.46164 8.80963 -30.1644 0 0 0
7.75085 8.71465 -29.0995 0 0 0
7.91823 8.62263 -27.9994 0 0 0
8.08719 8.52975 -26.8889 0 0 0
8.25457 8.43773 -25.7888 0 0 0
8.09758 8.35163 -24.7298 0 0 0
7.93199 8.26663 -23.6833 0 0 0
7.76484 8.18083 -22.6269 0 0 0
7.59925 8.09583 -21.5804 0 0 0
7.18222 8.01026 -20.4712 0 0 0
6.75561 7.9255 -19.3695 0 0 0
6.32496 7.83994 -18.2573 0 0 0
5.89834 7.75518 -17.1556 0 0 0
5.34752 7.68253 -16.1378 0 0 0
4.79253 7.61159 -15.1372 0 0 0
4.23227 7.53997 -14.127 0 0 0
3.67725 7.46902 -13.1264 0 0 0
3.09208 7.40142 -12.1383 0 0 0
2.46066 7.3422 -11.1998 0 0 0
1.82452 7.28254 -10.2543 0 0 0
1.19397 7.2234 -9.3171 0 0 0
0.562504 7.16418 -8.37855 0 0 0
-0.0853894 7.10797 -7.44623 0 0 0
-0.752576 7.06042 -6.55577 0 0 0
-1.42607 7.01242 -5.65689 0 0 0
-2.09331 6.96487 -4.76635 0 0 0
-2.76681 6.91687 -3.86748 0 0 0
-3.43399 6.86932 -2.97702 0 0 0
-4.14124 6.83122 -2.07677 0 0 0
-4.84416 6.79417 -1.18494 0 0 0
-5.55372 6.75677 -0.284676 0 0 0
-6.25669 6.71971 0.607228 0 0 0
-6.96625 6.68231 1.50749 0 0 0
-7.66677 6.65277 2.39443 0 0 0
-8.37201 6.62857 3.28597 0 0 0
-9.0707 6.6046 4.16923 0 0 0
-9.77594 6.58041 5.06077 0 0 0
-10.4746 6.55644 5.94396 0 0 0
-11.1704 6.5356 6.83157 0 0 0
-11.8247 6.52729 7.6961 0 0 0
-12.4791 6.51898 8.56063 0 0 0
-13.1396 6.51059 9.43341 0 0 0
-13.794 6.50228 10.2979 0 0 0
-14.4545 6.49389 11.1707 0 0 0
-15.1183 6.5024 12.1293 0 0 0
-15.7897 6.5141 13.1137 0 0 0
-16.4548 6.52568 14.089 0 0 0
-17.1261 6.53738 15.0733 0 0 0
-17.7582 6.55515 16.0424 0 0 0
-18.2909 6.5919 16.9951 0 0 0
-18.8194 6.62835 17.9402 0 0 0
-19.3527 6.66515 18.8941 0 0 0
-19.8812 6.7016 19.8392 0 0 0
-20.3029 6.76452 20.8322 0 0 0
-20.6782 6.83673 21.8302 0 0 0
-21.057 6.90961 22.8377 0 0 0
-21.4322 6.98181 23.8357 0 0 0
-21.7193 7.08674 24.9294 0 0 0
-21.9648 7.20409 26.0481 0 0 0
-22.2126 7.32254 27.1774 0 0 0
-22.3885 7.45992 28.29 0 0 0
-22.5447 7.60298 29.4008 0 0 0
-22.7023 7.74738 30.5221 0 0 0
-22.7788 7.91004 31.6179 0 0 0
-22.8418 8.07774 32.7215 0 0 0
-22.9043 8.24386 33.8146 0 0 0
-22.8761 8.43054 34.8927 0 0 0
-22.8406 8.6171 35.9585 0 0 0
-22.8046 8.80542 37.0344 0 0 0
-22.6587 9.02149 38.1223 0 0 0
-22.5115 9.23967 39.2207 0 0 0
-22.3376 9.46114 40.3047 0 0 0
-22.0683 9.70283 41.386 0 0 0
-21.8014 9.94226 42.4572 0 0 0
-21.4647 10.1915 43.5042 0 0 0
-21.0768 10.4446 44.5137 0 0 0
-20.6851 10.7 45.5327 0 0 0
-20.1875 10.9625 46.4792 0 0 0
-19.6689 11.2287 47.4252 0 0 0
-19.1307 11.494 48.3469 0 0 0
-18.4803 11.7683 49.2093 0 0 0
-17.836 12.0399 50.0635 0 0 0
-17.1237 12.3141 50.8708 0 0 0
-16.3367 12.5934 51.6387 0 0 0
-15.5571 12.87 52.3994 0 0 0
-14.7172 13.132 53.0362 0 0 0
-13.8743 13.3875 53.6381 0 0 0
-13.0234 13.6455 54.2456 0 0 0
-12.0612 13.9003 54.753 0 0 0
-11.0764 14.1576 55.2543 0 0 0
-10.1008 14.4124 55.7509 0 0 0
-9.0753 14.6437 56.1009 0 0 0
-8.04353 14.8566 56.3582 0 0 0
-6.98498 15.0532 56.5167 0 0 0
-5.91394 15.2218 56.5246 0 0 0
-4.85 15.3656 56.4071 0 0 0
-3.8115 15.4875 56.1899 0 0 0
-2.77952 15.5912 55.8732 0 0 0
-1.78087 15.6708 55.4377 0 0 0
-0.824402 15.7334 54.9251 0 0 0
0.0958167 15.7839 54.3575 0 0 0
1.00584 15.8241 53.7176 0 0 0
1.84225 15.8514 53.0295 0 0 0
2.66045 15.8743 52.3041 0 0 0
3.46845 15.8934 51.5342 0 0 0
4.20289 15.9079 50.7501 0 0 0
4.92806 15.9227 49.937 0 0 0
5.62955 15.9374 49.1089 0 0 0
6.23719 15.9303 48.1507 0 0 0
6.83436 15.9223 47.1953 0 0 0
7.3633 15.8979 46.1779 0 0 0
7.80822 15.8564 45.1126 0 0 0
8.25732 15.8145 44.0373 0 0 0
8.63231 15.7642 42.9843 0 0 0
8.95386 15.7063 41.9323 0 0 0
9.27236 15.649 40.8902 0 0 0
9.5939 15.5912 39.8382 0 0 0
9.84139 15.5241 38.7952 0 0 0
10.0899 15.4562 37.7425 0 0 0
10.3361 15.3889 36.6996 0 0 0
10.5846 15.321 35.647 0 0 0
10.7986 15.2424 34.526 0 0 0
11.0134 15.1625 33.3911 0 0 0
11.2261 15.0834 32.2668 0 0 0
11.4388 15.0043 31.1426 0 0 0
11.6254 14.9175 29.9644 0 0 0
11.8081 14.831 28.794 0 0 0
11.9926 14.7437 27.6124 0 0 0
12.1753 14.6572 26.4419 0 0 0
12.3355 14.5672 25.2502 0 0 0
12.4917 14.4778 24.0686 0 0 0
12.6494 14.3875 22.8758 0 0 0
12.8056 14.2981 21.6942 0 0 0
12.9427 14.2092 20.523 0 0 0
13.076 14.1213 19.3654 0 0 0
13.2104 14.0326 18.1968 0 0 0
13.3437 13.9447 17.0392 0 0 0
13.4611 13.8612 15.9223 0 0 0
13.5748 13.7793 14.8239 0 0 0
13.6895 13.6966 13.715 0 0 0
13.8032 13.6148 12.6165 0 0 0
13.9147 13.5334 11.4813 0 0 0
14.0245 13.453 10.3516 0 0 0
14.1354 13.3719 9.21118 0 0 0
14.2443 13.2942 8.09153 0 0 0
14.3506 13.2235 6.99793 0 0 0
14.458 13.1522 5.89408 0 0 0
14.5647 13.0822 4.80127 0 0 0
14.6798 13.0259 3.72571 0 0 0
14.7938 12.9702 2.66031 0 0 0
14.9104 12.9165 1.58299 0 0 0
15.0288 12.8676 0.512402 0 0 0
15.1357 12.8134 -0.568918 0 0 0
15.234 12.7571 -1.6466 0 0 0
15.3216 12.6966 -2.75228 0 0 0
15.3936 12.6365 -3.84804 0 0 0
15.4543 12.5785 -4.93832 0 0 0
15.5032 12.5248 -6.00762 0 0 0
15.5412 12.476 -7.1112 0 0 0
15.5676 12.4378 -8.20513 0 0 0
15.5867 12.41 -9.29335 0 0 0
15.6001 12.3931 -10.3683 0 0 0
15.6089 12.3888 -11.478 0 0 0
15.6147 12.4022 -12.5777 0 0 0
15.62 12.4274 -13.6759 0 0 0
15.6251 12.4617 -14.7532 0 0 0
15.6324 12.5153 -15.8299 0 0 0
